861
0.9023834466934204 24.43775749206543 38.7718620300293
0.6043112277984619 24.443998336791992 38.85441970825195
0.3677346408367157 24.448284149169922 39.078216552734375
0.36133357882499695 24.485225677490234 38.6187858581543
0.17152053117752075 24.418149948120117 39.47636795043945
-0.07883238047361374 24.459314346313477 39.232696533203125
-0.36681631207466125 24.484722137451172 39.17333221435547
-0.29049038887023926 24.518779754638672 38.83539581298828
-0.6242809295654297 24.584625244140625 38.48212814331055
-0.19824980199337006 24.556703567504883 38.396995544433594
-0.40079039335250854 24.626258850097656 38.04534149169922
-0.0879373624920845 24.599767684936523 37.968238830566406
-0.7146224975585938 24.653966903686523 38.136112213134766
-1.4059172868728638 24.641695022583008 38.619171142578125
-1.3036848306655884 24.712024688720703 38.18427658081055
-1.6528695821762085 24.7082576751709 38.415245056152344
-1.4849474430084229 24.607994079589844 38.94831085205078
-1.1617708206176758 24.59105682373047 38.8404541015625
-0.9211163520812988 24.54165267944336 39.062278747558594
-0.8540926575660706 24.574951171875 38.73763656616211
-0.6741438508033752 24.492542266845703 39.27728271484375
-0.9914995431900024 24.50977325439453 39.37777328491211
-1.0686379671096802 24.463502883911133 39.71049499511719
-1.3123316764831543 24.5148868560791 39.47536849975586
-1.6340186595916748 24.520051956176758 39.572994232177734
-1.5590410232543945 24.56414222717285 39.25957107543945
-1.7148760557174683 24.47288703918457 39.91518783569336
-1.9553405046463013 24.52527618408203 39.670074462890625
-2.2755842208862305 24.526168823242188 39.765323638916016
-2.1993911266326904 24.570514678955078 39.45061492919922
-2.443575859069824 24.615253448486328 39.234405517578125
-2.1246821880340576 24.61420440673828 39.1399040222168
-2.049604892730713 24.657978057861328 38.82902908325195
-1.8053615093231201 24.613210678100586 39.04518127441406
-1.9721400737762451 24.716747283935547 38.519874572753906
-2.2906131744384766 24.717756271362305 38.61420440673828
-2.762873649597168 24.61624526977539 39.32904052734375
-2.687140941619873 24.659988403320312 39.017887115478516
-2.6092982292175293 24.71881103515625 38.70854568481445
-2.9278697967529297 24.719860076904297 38.80271911621094
-3.168259859085083 24.768457412719727 38.58393096923828
-3.2468369007110596 24.70953369140625 38.893943786621094
-3.3257803916931152 24.644489288330078 39.20308303833008
-3.5662269592285156 24.693105697631836 38.984107971191406
-3.4078426361083984 24.59154510498047 39.52587127685547
-3.083927631378174 24.60990333557129 39.42387390136719
-3.7283451557159424 24.57358741760254 39.62577819824219
-3.5322751998901367 24.5209903717041 39.95597839355469
-3.2844018936157227 24.48381233215332 40.19296646118164
-3.0370566844940186 24.441617965698242 40.40953063964844
-2.9275412559509277 24.509078979492188 39.98278045654297
-2.840721607208252 24.56494903564453 39.64173126220703
-2.5976085662841797 24.5196475982666 39.86166763305664
-2.361361265182495 24.470653533935547 40.10753631591797
-2.4702296257019043 24.40781021118164 40.53287124633789
-2.1462130546569824 24.41419792175293 40.436954498291016
-1.933587670326233 24.35440444946289 40.78598403930664
-1.596323013305664 24.35706901550293 40.70962142944336
-1.8170084953308105 24.419097900390625 40.3475227355957
-2.041633129119873 24.305416107177734 41.11941909790039
-2.257720947265625 24.34995460510254 40.871681213378906
-2.5841426849365234 24.341463088989258 40.9814338684082
-3.3749701976776123 24.40313720703125 40.63093948364258
-3.1218161582946777 24.370784759521484 40.80833053588867
-3.640460252761841 24.44444465637207 40.40316390991211
-3.710803747177124 24.374267578125 40.766143798828125
-1.488994836807251 24.41830825805664 40.256492614746094
-0.9466267824172974 24.35982322692871 40.493106842041016
-1.1655664443969727 24.41286277770996 40.160057067871094
-1.2634996175765991 24.3622989654541 40.60940933227539
-0.8382573127746582 24.409208297729492 40.049137115478516
-0.5566067695617676 24.387130737304688 40.140892028808594
-0.4917745292186737 24.423526763916016 39.81851577758789
-0.16841468214988708 24.41665267944336 39.69667053222656
-0.4234803020954132 24.45216941833496 39.48728942871094
0.08563385903835297 24.3798828125 39.91999435424805
-0.6316764950752258 24.35318946838379 40.446258544921875
-0.30731987953186035 24.352725982666016 40.3452262878418
-0.052256789058446884 24.314590454101562 40.57209014892578
0.01940079592168331 24.351646423339844 40.248573303222656
1.547916293144226 24.42585563659668 38.566314697265625
1.21869957447052 24.432392120361328 38.665645599365234
1.5781102180480957 24.31959342956543 39.86164093017578
0.47190138697624207 24.400054931640625 39.48072814941406
1.1366829872131348 24.193347930908203 40.772239685058594
1.6057624816894531 23.946775436401367 41.81791687011719
2.106170415878296 23.711883544921875 42.85054016113281
1.8228551149368286 23.297571182250977 44.493831634521484
0.5699759721755981 23.30000877380371 44.45168685913086
1.0089308023452759 23.335622787475586 44.34466552734375
0.25987523794174194 23.257272720336914 44.58028030395508
0.15918360650539398 23.34670066833496 44.2945442199707
0.026403795927762985 23.795032501220703 42.74193572998047
0.2948155105113983 23.464391708374023 43.900028228759766
-0.11080042272806168 23.229631423950195 44.62211990356445
0.17886164784431458 23.151824951171875 44.86623001098633
0.3693179786205292 22.94027328491211 45.46873092651367
-0.07505602389574051 22.683473587036133 46.05793762207031
-0.4462021291255951 22.752887725830078 45.84619140625
-0.6776703596115112 22.866376876831055 45.54240798950195
-0.45944565534591675 21.951902389526367 47.575443267822266
-1.5818955898284912 22.583412170410156 46.06528091430664
-2.233393430709839 22.751649856567383 45.57823181152344
-2.659773826599121 22.65205955505371 45.70344924926758
-2.077327251434326 23.263431549072266 44.36702346801758
-2.421264886856079 23.201120376586914 44.47834014892578
-2.2917046546936035 23.37328338623047 44.07086181640625
-1.1633431911468506 23.606338500976562 43.441646575927734
-1.0911304950714111 23.714744567871094 43.09313201904297
-0.890720546245575 23.427120208740234 43.9831657409668
-0.8214935064315796 23.539398193359375 43.638465881347656
-0.06821205466985703 23.912599563598633 42.3211669921875
0.2982541024684906 23.879732131958008 42.39193344116211
-1.281802773475647 24.29547882080078 41.00611114501953
-0.5778113603591919 24.147544860839844 41.49834442138672
-1.9369772672653198 23.650848388671875 43.30281448364258
-1.5531671047210693 23.550390243530273 43.599754333496094
-1.5068365335464478 23.677541732788086 43.23332595825195
-1.9053784608840942 23.403453826904297 44.00142288208008
-2.152390480041504 23.525222778320312 43.65144729614258
-4.5343732833862305 23.2623348236084 43.999759674072266
-4.428045272827148 23.454307556152344 43.58253860473633
-4.811846733093262 23.345670700073242 43.74498748779297
-4.334143161773682 23.627931594848633 43.167476654052734
-4.687412261962891 23.532136917114258 43.34114456176758
-4.013893127441406 23.695341110229492 43.05838394165039
-4.25142240524292 23.766633987426758 42.83724594116211
-3.7810237407684326 23.590927124023438 43.34708023071289
-3.68638277053833 23.75733184814453 42.95038986206055
-2.8249731063842773 23.438119888305664 43.8490104675293
-2.691917657852173 22.49562644958496 46.02555465698242
-2.6721746921539307 22.332439422607422 46.3716926574707
-2.6918482780456543 22.15089988708496 46.70149612426758
-2.29506778717041 22.07291030883789 46.945491790771484
-3.0342702865600586 21.590017318725586 47.616249084472656
-3.0808403491973877 21.40071678161621 47.91423034667969
-2.8208794593811035 21.06795883178711 48.53498458862305
-3.123818874359131 21.21497344970703 48.20690155029297
-3.2063755989074707 20.967138290405273 48.58326721191406
-2.079146385192871 20.88611602783203 49.032535552978516
-2.05361008644104 21.13022804260254 48.646331787109375
-2.466491222381592 20.979028701782227 48.77696228027344
-2.5630712509155273 20.529314041137695 49.448001861572266
-2.213244915008545 20.660348892211914 49.347869873046875
-2.514420747756958 20.775537490844727 49.08290100097656
-2.8897974491119385 20.826353073120117 48.895591735839844
-3.2365562915802 20.69770622253418 48.992862701416016
-1.5709980726242065 20.6818904876709 49.48895263671875
-1.25438392162323 20.795989990234375 49.3853874206543
-1.5377405881881714 20.928112030029297 49.10749816894531
-0.8821296095848083 20.754873275756836 49.53830337524414
-1.0230560302734375 20.521121978759766 49.869998931884766
-0.717930793762207 20.633852005004883 49.76691818237305
-1.8854607343673706 20.557443618774414 49.590885162353516
-1.6076878309249878 20.482515335083008 49.77382278442383
-0.6890071034431458 21.418495178222656 48.49940490722656
-1.0731414556503296 21.46409797668457 48.33635330200195
0.044622305780649185 21.442365646362305 48.60429382324219
-0.45040562748908997 20.565185546875 49.931697845458984
0.8974888920783997 21.121118545532227 49.30275344848633
1.2235251665115356 21.22347640991211 49.181114196777344
1.865757703781128 20.70746612548828 50.12697982788086
1.8683545589447021 20.876224517822266 49.848384857177734
3.085502862930298 19.991397857666016 51.268226623535156
3.1347784996032715 18.85576629638672 52.61944580078125
2.9112422466278076 18.590768814086914 52.88445281982422
2.7730793952941895 19.27501678466797 52.116764068603516
1.6166672706604004 19.173583984375 52.05559158325195
0.5551065802574158 18.1068115234375 52.97477722167969
0.540037989616394 17.82477569580078 53.22393035888672
0.9715688228607178 16.955989837646484 54.028038024902344
0.5960220694541931 17.10733985900879 53.82011795043945
0.6861134171485901 16.761327743530273 54.069854736328125
1.2602269649505615 17.14722442626953 53.97883987426758
1.3601962327957153 16.832763671875 54.2084846496582
1.6469703912734985 17.02882957458496 54.15604019165039
1.7582653760910034 16.713048934936523 54.389102935791016
1.662619709968567 17.38629722595215 53.84928894042969
1.229581356048584 17.41167449951172 53.74374771118164
0.1663622260093689 17.59676742553711 53.34391784667969
0.17182552814483643 17.941387176513672 53.03639221191406
-0.17669717967510223 17.691959381103516 53.181976318359375
-0.126550555229187 17.30859375 53.47330093383789
-0.5021387934684753 17.417774200439453 53.28810501098633
-0.4101046025753021 17.096818923950195 53.52360153198242
0.19827452301979065 17.21258544921875 53.6329345703125
0.9114195108413696 17.329843521118164 53.74950408935547
2.0052545070648193 17.64728355407715 53.68922424316406
1.6633415222167969 18.45505714416504 52.838592529296875
2.61798095703125 18.410398483276367 53.031070709228516
2.1075897216796875 18.424640655517578 52.94203186035156
2.3874776363372803 18.24776268005371 53.16682815551758
2.430973529815674 17.5368595123291 53.84919357299805
3.0447652339935303 18.299089431762695 53.19573211669922
4.572110652923584 17.367910385131836 54.19803237915039
4.606002330780029 17.12278175354004 54.42056655883789
4.8741960525512695 17.274526596069336 54.28591537475586
2.694359540939331 17.706769943237305 53.74081802368164
2.165680408477783 17.364381790161133 53.959529876708984
1.9184931516647339 17.189924240112305 54.06882095336914
5.1741485595703125 17.190109252929688 54.36563491821289
6.388830184936523 17.00661277770996 54.50271987915039
6.107717990875244 16.780784606933594 54.71546173095703
6.786444187164307 16.85139274597168 54.6318473815918
7.864598751068115 16.727947235107422 54.85082244873047
6.831118583679199 16.126766204833984 55.24864196777344
6.567765235900879 15.953495025634766 55.387577056884766
6.637117385864258 15.635534286499023 55.6486930847168
8.59886646270752 16.170398712158203 55.745765686035156
7.273445129394531 14.970117568969727 56.144073486328125
7.059337615966797 14.58630657196045 56.32115936279297
7.073856830596924 14.206888198852539 56.418766021728516
6.768995761871338 14.478877067565918 56.30400085449219
6.756791591644287 14.063836097717285 56.39528274536133
7.4961628913879395 14.131980895996094 56.61927795410156
7.373137950897217 14.473043441772461 56.434749603271484
7.571589946746826 13.806392669677734 56.778133392333984
7.311103820800781 13.506458282470703 56.73923110961914
8.538496017456055 12.67258071899414 57.46419906616211
8.915221214294434 12.674642562866211 57.636600494384766
8.315468788146973 12.415679931640625 57.388328552246094
8.25121784210205 12.74725341796875 57.32499313354492
8.106860160827637 12.175273895263672 57.27204132080078
8.429157257080078 12.088604927062988 57.42838668823242
7.7461724281311035 12.274948120117188 57.076236724853516
7.894679546356201 11.917945861816406 57.1357307434082
8.925777435302734 14.06609058380127 57.25775909423828
8.608348846435547 13.751709938049316 57.28590774536133
8.27756404876709 13.904998779296875 57.069087982177734
8.613170623779297 14.228963851928711 57.09609603881836
7.937262535095215 13.686126708984375 56.99148178100586
7.990508556365967 12.875187873840332 57.170677185058594
8.2855806350708 13.153539657592773 57.281044006347656
7.658512592315674 12.62144660949707 57.03730773925781
7.050046443939209 12.491531372070312 56.68974685668945
7.373220920562744 12.378201484680176 56.86751937866211
7.323254108428955 12.776768684387207 56.83990478515625
6.675085544586182 12.624831199645996 56.58137130737305
6.827483177185059 12.27698802947998 56.626914978027344
5.925004482269287 12.8790922164917 56.40704345703125
6.284223556518555 12.748983383178711 56.48406219482422
6.113374710083008 13.148693084716797 56.44138717651367
6.400687217712402 14.192048072814941 56.30387878417969
5.709797382354736 13.291894912719727 56.38441467285156
4.905174732208252 13.610283851623535 56.34575271606445
4.626706600189209 13.386651992797852 56.35083770751953
5.071463108062744 13.209331512451172 56.36943054199219
5.806514739990234 14.27134895324707 56.202510833740234
4.479249954223633 13.772326469421387 56.28604507446289
4.205591678619385 13.540215492248535 56.291988372802734
3.5664408206939697 13.755721092224121 56.172630310058594
3.8787641525268555 13.650890350341797 56.230873107910156
3.2120230197906494 14.191666603088379 55.992679595947266
3.2591357231140137 13.856439590454102 56.1008415222168
2.9615659713745117 13.948386192321777 55.988521575927734
2.3686273097991943 14.132866859436035 55.76405334472656
2.6648683547973633 14.040042877197266 55.87638854980469
2.437687397003174 15.945451736450195 55.024803161621094
1.704072117805481 14.968317985534668 55.27054214477539
1.4142205715179443 15.059281349182129 55.147865295410156
1.4502837657928467 14.739726066589355 55.28741455078125
1.2059446573257446 14.500723838806152 55.269874572753906
1.495945930480957 14.408441543579102 55.392967224121094
0.7421634793281555 16.461088180541992 54.279022216796875
0.7804839015007019 16.16594886779785 54.478965759277344
1.378710389137268 15.37581729888916 55.00511169433594
0.5335714817047119 13.450514793395996 55.26835250854492
1.397649884223938 13.162259101867676 55.654476165771484
1.6887930631637573 13.066550254821777 55.78001403808594
2.573758363723755 12.775981903076172 56.127723693847656
2.8812949657440186 12.674488067626953 56.19971466064453
4.118285655975342 12.273710250854492 56.3844108581543
5.501409530639648 13.01466178894043 56.392906188964844
6.109828948974609 12.464162826538086 56.432491302490234
6.510114669799805 12.346076011657715 56.5323371887207
6.037717819213867 11.389190673828125 56.40913391113281
7.10848331451416 12.038918495178223 56.71634292602539
7.528788089752197 11.982438087463379 56.934837341308594
7.960606575012207 11.507194519042969 57.143341064453125
8.613035202026367 11.687774658203125 57.49870300292969
9.1933012008667 11.31924819946289 57.724369049072266
8.238724708557129 10.61063003540039 57.14432907104492
9.002312660217285 10.233834266662598 57.46336364746094
8.587862968444824 10.336522102355957 57.28096389770508
11.347524642944336 10.329699516296387 58.264015197753906
9.414695739746094 8.52271556854248 56.916229248046875
8.96779727935791 8.872014999389648 56.94315719604492
8.795717239379883 8.686905860900879 56.6969108581543
9.09727954864502 8.591957092285156 56.82283401489258
8.11475944519043 8.78553581237793 56.342899322509766
8.49855899810791 8.782455444335938 56.57386779785156
7.7391862869262695 9.802010536193848 56.62956237792969
7.437833786010742 9.619237899780273 56.441043853759766
7.1007280349731445 9.725754737854004 56.328216552734375
7.20997428894043 9.411345481872559 56.273338317871094
7.343148708343506 9.102283477783203 56.1393928527832
6.815812110900879 10.860978126525879 56.52568054199219
6.391548156738281 11.129366874694824 56.410804748535156
6.091144561767578 11.075716018676758 56.39915466308594
6.180938243865967 10.757640838623047 56.387901306152344
6.8829193115234375 10.449577331542969 56.47417068481445
6.989932537078857 10.052091598510742 56.388736724853516
6.712286472320557 9.851807594299316 56.23860549926758
6.099506855010986 8.434453964233398 55.404598236083984
6.579432487487793 8.378971099853516 55.438812255859375
7.739455699920654 8.926191329956055 56.23698806762695
7.806162357330322 8.088822364807129 55.62122344970703
9.065733909606934 7.702936172485352 55.9669189453125
11.063069343566895 6.690650939941406 55.666378021240234
10.772870063781738 6.952935218811035 55.912559509277344
13.07682991027832 5.843880653381348 55.004180908203125
13.742464065551758 5.690544128417969 54.95057678222656
14.23535442352295 5.416112422943115 54.15332794189453
13.221908569335938 5.826908111572266 53.348697662353516
12.98200511932373 5.7673821449279785 53.673030853271484
12.799210548400879 5.8733086585998535 53.41621780395508
14.841833114624023 5.481647968292236 53.32417678833008
14.501019477844238 5.624774932861328 53.13066101074219
14.568359375 5.781121253967285 52.77752685546875
14.139691352844238 6.147192001342773 52.38003158569336
13.906315803527832 6.3390116691589355 52.13774490356445
13.668099403381348 6.51086950302124 51.828102111816406
13.308810234069824 6.357134819030762 51.864891052246094
13.263819694519043 6.342264652252197 52.223243713378906
12.886241912841797 6.307823181152344 51.994606018066406
13.470649719238281 5.9144439697265625 52.9571647644043
13.5246000289917 6.3925700187683105 52.12419891357422
13.69448471069336 6.22368860244751 52.34420394897461
12.67313289642334 6.285944938659668 52.32844543457031
12.468098640441895 6.247238636016846 52.041236877441406
12.494935035705566 5.917105674743652 53.42966079711914
11.795708656311035 5.980034351348877 53.20733642578125
10.570121765136719 6.236472129821777 54.50226593017578
10.63000202178955 6.116709232330322 54.05426025390625
10.964693069458008 6.012406826019287 52.69198989868164
10.640737533569336 5.897487640380859 52.514774322509766
11.068376541137695 5.884157657623291 52.40000915527344
10.212967872619629 5.884840965270996 52.56278610229492
10.705390930175781 5.356118679046631 51.46908187866211
11.465456008911133 5.970061779022217 52.26640319824219
11.880400657653809 6.045504570007324 52.13694381713867
12.189234733581543 6.121446132659912 52.08796691894531
12.570356369018555 5.445584297180176 50.30033874511719
12.33828353881836 5.5049848556518555 50.60433578491211
13.088873863220215 5.455946445465088 49.9446907043457
13.472696304321289 5.5960893630981445 49.81156921386719
14.609350204467773 5.564205169677734 49.260498046875
14.597949028015137 2.2773869037628174 49.46611404418945
14.849099159240723 1.8973109722137451 49.46962356567383
14.85484790802002 1.5595628023147583 49.281044006347656
15.71530532836914 0.6369004845619202 49.411842346191406
15.509265899658203 -0.18268483877182007 48.44779586791992
15.637635231018066 -0.405824214220047 48.264137268066406
15.977787971496582 -0.4775846302509308 48.57848358154297
17.323448181152344 -0.9280539155006409 49.488800048828125
17.18463897705078 -1.0323575735092163 49.20623016357422
17.602161407470703 -1.0020804405212402 49.73270797729492
17.50791358947754 -1.2300100326538086 49.33037185668945
18.223188400268555 -1.9412213563919067 49.33514404296875
17.563371658325195 -1.8527716398239136 48.461097717285156
18.6107234954834 -2.7456607818603516 48.49409484863281
19.069828033447266 -3.2033729553222656 48.10477828979492
19.39959144592285 -3.454723834991455 48.24611282348633
19.359323501586914 -3.4179041385650635 47.914608001708984
19.822912216186523 -3.677344560623169 47.12517547607422
20.161014556884766 -3.924903631210327 47.270267486572266
19.894372940063477 -3.8282551765441895 47.50306701660156
20.096038818359375 -3.9910497665405273 47.98640441894531
20.58723258972168 -4.363192081451416 48.1017951965332
21.190011978149414 -4.795380115509033 48.06800842285156
21.21550178527832 -4.849552631378174 48.384490966796875
20.872896194458008 -4.6035943031311035 48.301002502441406
21.29652976989746 -4.7608866691589355 47.67304611206055
21.57343864440918 -4.7322258949279785 47.291255950927734
24.179901123046875 -4.812800884246826 46.106929779052734
25.95332145690918 -4.577106952667236 44.64487075805664
26.04743194580078 -4.341350555419922 44.312232971191406
24.815797805786133 -3.7047150135040283 44.41171646118164
25.222482681274414 -3.7837581634521484 44.239227294921875
25.53803253173828 -3.739539384841919 43.95612335205078
25.969148635864258 -2.9939165115356445 42.97382736206055
26.119911193847656 -2.676042079925537 42.6762580871582
26.37364959716797 -3.2346296310424805 43.050968170166016
27.388154983520508 -2.350918769836426 42.241249084472656
27.88797378540039 -3.2579710483551025 42.67475509643555
28.198562622070312 -3.570680618286133 42.77598571777344
28.612276077270508 -3.8355801105499268 42.83831787109375
28.537260055541992 -3.487696409225464 42.65117645263672
28.79300308227539 -2.7943804264068604 42.256385803222656
28.848472595214844 -2.382534980773926 42.07440948486328
29.055912017822266 -2.196512222290039 41.97052001953125
29.252513885498047 -2.4366977214813232 42.05048370361328
29.574235916137695 -2.3922030925750732 41.98247146606445
29.692476272583008 -2.090409517288208 41.868953704833984
29.90163230895996 -2.338876962661743 41.93889236450195
30.231380462646484 -2.287553071975708 41.89582443237305
30.111915588378906 -2.5737082958221436 42.003963470458984
30.35456657409668 -1.98837149143219 41.782833099365234
30.560876846313477 -2.23795485496521 41.853370666503906
29.476886749267578 -1.8408643007278442 41.79166030883789
29.81134796142578 -1.7863496541976929 41.74715805053711
29.930362701416016 -1.4808541536331177 41.62482452392578
30.143341064453125 -1.7354880571365356 41.70408630371094
29.13729476928711 -1.9097084999084473 41.82911682128906
29.248554229736328 -1.6022592782974243 41.706302642822266
30.887174606323242 -2.196960210800171 41.80165100097656
31.934141159057617 -2.6466870307922363 41.800289154052734
29.71331024169922 -1.2278131246566772 41.54630661010742
29.365671157836914 -1.294419288635254 41.58314895629883
29.48186683654785 -0.978722333908081 41.4559211730957
29.60038185119629 -0.6559807658195496 41.298404693603516
29.237022399902344 -0.7144418954849243 41.330848693847656
28.987613677978516 -0.4428921639919281 41.202308654785156
28.731077194213867 -0.18399742245674133 41.0799674987793
28.359073638916016 -0.329190731048584 41.1299934387207
27.138813018798828 1.8937946557998657 39.288291931152344
26.805866241455078 1.8959256410598755 39.05319595336914
26.63144302368164 2.449583053588867 38.10875701904297
25.834304809570312 1.7503366470336914 38.57175064086914
25.829875946044922 2.3776001930236816 37.11056900024414
24.943309783935547 1.8655898571014404 37.71387481689453
25.531274795532227 2.359300136566162 36.75520324707031
25.349803924560547 2.4219281673431396 35.59214401245117
25.15610122680664 2.3578531742095947 35.328651428222656
25.461315155029297 2.4957189559936523 35.28329086303711
24.84250831604004 2.2421185970306396 35.38008117675781
26.605499267578125 3.2451415061950684 33.66482925415039
27.647836685180664 3.9928462505340576 33.23516082763672
29.854623794555664 6.456694602966309 31.983081817626953
29.66769027709961 6.204824924468994 32.345115661621094
29.434450149536133 5.929625034332275 32.31050109863281
29.992929458618164 6.536757469177246 33.129337310791016
31.120988845825195 8.101983070373535 32.266849517822266
31.35547637939453 8.416399955749512 32.23345184326172
31.182205200195312 8.220279693603516 31.982179641723633
31.1522274017334 8.163902282714844 31.664615631103516
31.00412940979004 7.937626838684082 31.930299758911133
30.488784790039062 7.191206932067871 31.297470092773438
30.774255752563477 7.569228172302246 31.874238967895508
30.388999938964844 7.217075347900391 30.968448638916016
30.977249145507812 8.231475830078125 30.278249740600586
31.140531539916992 8.113812446594238 31.329248428344727
31.32244873046875 8.415746688842773 31.34105110168457
31.36068344116211 8.517913818359375 31.780054092407227
31.576963424682617 8.911201477050781 31.832298278808594
31.863008499145508 9.586319923400879 30.571863174438477
31.856435775756836 9.605448722839355 30.925851821899414
31.363012313842773 8.710390090942383 30.14609718322754
31.837543487548828 9.741941452026367 29.800031661987305
32.021400451660156 11.244999885559082 28.072099685668945
31.930849075317383 10.90215015411377 28.33584976196289
33.31554412841797 12.068984985351562 26.380191802978516
33.11017990112305 11.945323944091797 26.6944580078125
32.9945068359375 12.020934104919434 26.27545738220215
32.32695007324219 11.38659954071045 27.89630126953125
32.172401428222656 11.402000427246094 27.688249588012695
32.48988342285156 11.674095153808594 27.9616641998291
32.74003982543945 12.921344757080078 27.9154052734375
32.639095306396484 12.696407318115234 28.26304054260254
32.53687286376953 13.13303279876709 28.2447566986084
32.21830749511719 13.928638458251953 28.314958572387695
32.40266799926758 13.540266036987305 28.337020874023438
32.09709930419922 13.794990539550781 29.488662719726562
32.04188919067383 14.155668258666992 28.67347526550293
31.34548568725586 15.047280311584473 29.272077560424805
31.504688262939453 14.845137596130371 28.88890838623047
31.054101943969727 15.284274101257324 29.814762115478516
31.288175582885742 15.06623649597168 29.835783004760742
31.19847869873047 15.16786003112793 29.546783447265625
30.90932273864746 15.401288986206055 30.083845138549805
30.8139591217041 15.507955551147461 29.79058074951172
31.277488708496094 15.103031158447266 30.397626876831055
31.514202117919922 14.882658004760742 30.430192947387695
31.034915924072266 15.32944393157959 30.375507354736328
31.1605224609375 15.257768630981445 30.66827392578125
31.04358673095703 15.411112785339355 30.937360763549805
31.287267684936523 15.184415817260742 30.960954666137695
31.36803436279297 15.069278717041016 31.25347900390625
31.483097076416016 14.915946006774902 30.9827880859375
31.68053436279297 14.64529800415039 31.00660514831543
31.597084045410156 14.764483451843262 30.713232040405273
31.837356567382812 14.353277206420898 29.766769409179688
32.17710494995117 13.432906150817871 31.44568634033203
31.273103713989258 15.243718147277832 31.52579689025879
31.022510528564453 15.46235466003418 31.50252342224121
31.12440299987793 15.36755084991455 31.797883987426758
30.9737491607666 15.493074417114258 32.070003509521484
31.228408813476562 15.270853996276855 32.096004486083984
31.33953857421875 15.169445991516113 32.41725540161133
31.797039031982422 14.543350219726562 32.0059700012207
31.196258544921875 15.308343887329102 32.68663787841797
30.935949325561523 15.534417152404785 32.64324188232422
31.051259994506836 15.448962211608887 32.961639404296875
30.68436622619629 15.753753662109375 32.61723709106445
30.82256507873535 15.619132041931152 32.343074798583984
31.109830856323242 15.404961585998535 33.45064926147461
28.87542152404785 16.025968551635742 33.43624496459961
29.233779907226562 15.986695289611816 33.601966857910156
28.006568908691406 16.244144439697266 32.95795822143555
27.22332763671875 16.74236297607422 32.37324523925781
26.772642135620117 17.548723220825195 31.014528274536133
26.95560073852539 17.51548957824707 30.732620239257812
26.685583114624023 17.711040496826172 30.74003028869629
28.17275619506836 16.3920955657959 31.827360153198242
29.070966720581055 16.128019332885742 32.46623992919922
29.515079498291016 16.123424530029297 31.374954223632812
29.83370018005371 16.034805297851562 31.40096092224121
29.702489852905273 16.086153030395508 31.10740852355957
29.888477325439453 16.0537166595459 30.84101104736328
29.57236099243164 16.141721725463867 30.814842224121094
29.970001220703125 15.995762825012207 31.69660186767578
30.88249397277832 15.504076957702637 31.207685470581055
29.57407569885254 16.27549171447754 29.408157348632812
28.90021514892578 16.73149871826172 29.0869197845459
29.192773818969727 16.57395362854004 29.104808807373047
29.47218132019043 16.39337921142578 29.121347427368164
29.370702743530273 16.511144638061523 28.833900451660156
29.2744140625 16.63520622253418 28.546274185180664
29.554595947265625 16.453954696655273 28.56350326538086
28.815746307373047 16.882553100585938 28.80956268310547
28.62532615661621 16.921632766723633 29.080245971679688
28.349403381347656 17.11241912841797 29.07379150390625
28.435874938964844 16.960094451904297 29.350828170776367
26.40660858154297 17.89589500427246 30.742481231689453
25.8341007232666 18.52581214904785 29.89891815185547
25.649686813354492 18.556888580322266 30.182653427124023
26.01671600341797 18.495153427124023 29.61871910095215
25.730560302734375 18.670188903808594 29.617443084716797
24.31351089477539 18.73617935180664 32.19685363769531
24.12079620361328 18.76511573791504 32.50687026977539
24.727603912353516 18.085304260253906 33.487545013427734
24.4006290435791 18.29530906677246 33.52206039428711
24.57015037536621 18.110944747924805 33.891014099121094
24.72570037841797 18.914600372314453 34.75469970703125
24.40732192993164 20.43804359436035 34.02404022216797
24.48382568359375 20.759632110595703 33.89613723754883
26.254215240478516 19.888843536376953 34.321380615234375
25.927499771118164 20.071847915649414 34.172611236572266
26.989307403564453 21.676481246948242 33.621585845947266
24.88184928894043 21.13860511779785 33.72392654418945
24.56185531616211 21.058412551879883 33.770999908447266
24.626909255981445 21.356346130371094 33.647342681884766
24.986576080322266 23.280149459838867 33.723365783691406
26.207050323486328 23.312450408935547 33.778350830078125
26.153221130371094 23.03937530517578 33.63874816894531
25.98372459411621 23.87933349609375 34.59450912475586
24.79740333557129 23.995685577392578 34.223026275634766
25.07988739013672 24.171903610229492 35.276771545410156
24.74289321899414 24.217226028442383 35.38177490234375
25.10904884338379 24.0981502532959 35.563751220703125
24.178852081298828 23.691150665283203 36.164302825927734
27.99820327758789 17.165191650390625 41.558109283447266
27.916349411010742 18.094501495361328 42.973548889160156
27.41819953918457 17.43280029296875 43.390499114990234
26.267650604248047 16.659929275512695 45.546539306640625
26.20029067993164 16.934152603149414 45.8189582824707
25.9323673248291 16.750802993774414 46.068519592285156
25.552946090698242 16.21272850036621 46.3697624206543
25.0296630859375 15.3558349609375 46.34577178955078
25.15918731689453 15.684708595275879 46.674468994140625
24.871822357177734 15.3030366897583 46.63652420043945
24.668916702270508 14.860176086425781 45.40943908691406
24.93010139465332 15.076924324035645 45.516441345214844
25.50295066833496 15.656755447387695 45.489402770996094
25.48639678955078 15.769051551818848 45.88066101074219
25.192035675048828 15.295636177062988 45.426422119140625
24.927682876586914 15.09180736541748 45.090171813964844
24.453475952148438 14.735743522644043 44.772560119628906
24.768753051757812 15.014589309692383 44.694122314453125
24.590791702270508 14.802573204040527 45.05934524536133
25.941740036010742 15.947846412658691 44.56652069091797
25.53483009338379 15.667892456054688 44.0632438659668
24.839988708496094 15.385030746459961 43.12550735473633
25.0510196685791 15.412760734558105 43.54609680175781
24.114816665649414 14.8150053024292 43.730316162109375
23.602447509765625 14.619864463806152 43.239505767822266
23.815275192260742 14.686944007873535 43.49201965332031
22.99822425842285 14.079156875610352 43.741180419921875
23.17926025390625 14.07346248626709 44.11910629272461
22.840940475463867 13.888317108154297 43.98931121826172
22.821548461914062 14.036398887634277 43.476051330566406
23.19016456604004 14.273430824279785 43.511009216308594
23.355016708374023 14.464428901672363 43.22877883911133
23.22750473022461 14.361218452453613 42.231727600097656
23.179012298583984 13.570239067077637 42.0935173034668
23.91860008239746 13.354400634765625 42.24774932861328
23.501718521118164 13.3495454788208 42.35893249511719
24.915876388549805 13.894262313842773 41.81553649902344
26.294857025146484 14.357664108276367 41.60969543457031
25.71698570251465 14.070552825927734 42.47111511230469
25.940547943115234 14.099183082580566 42.78635025024414
26.078100204467773 13.75800609588623 44.43406295776367
26.405780792236328 13.934823036193848 44.153926849365234
26.11945915222168 13.37952995300293 45.50597381591797
24.329803466796875 13.066488265991211 44.2235107421875
25.135408401489258 13.599034309387207 43.78575134277344
24.333574295043945 13.52364730834961 42.38212203979492
23.287925720214844 13.179742813110352 42.645938873291016
22.90847396850586 13.265451431274414 42.59088134765625
23.134483337402344 13.40058422088623 42.35113525390625
22.750524520874023 13.524125099182129 42.23977279663086
22.74748420715332 13.662134170532227 42.59281921386719
22.75188446044922 13.807419776916504 43.08633041381836
22.27090072631836 13.175643920898438 43.49840545654297
22.150062561035156 13.07917594909668 43.80189895629883
22.652376174926758 13.662134170532227 44.251434326171875
23.58303451538086 13.948054313659668 45.62545394897461
23.444812774658203 13.786503791809082 45.88642883300781
23.91053009033203 14.171785354614258 45.62482452392578
23.038455963134766 13.88596248626709 44.3851432800293
24.248016357421875 14.544081687927246 44.96206283569336
24.09799575805664 14.557036399841309 44.59395980834961
24.72243881225586 14.96161937713623 46.34593200683594
24.58217430114746 15.006383895874023 46.77006912231445
24.40500831604004 15.284708023071289 47.50962448120117
24.213523864746094 14.94469928741455 47.450016021728516
25.03656005859375 16.036453247070312 46.999290466308594
24.3797664642334 15.877250671386719 47.84372329711914
24.012882232666016 15.993453025817871 48.1810417175293
23.854801177978516 16.527250289916992 47.63214874267578
24.9867000579834 16.538700103759766 47.27214813232422
24.852996826171875 16.224098205566406 47.319881439208984
24.8924503326416 3.1234447956085205 33.2572021484375
25.20669937133789 2.9811017513275146 33.272891998291016
24.89611053466797 2.843986988067627 33.35349655151367
22.492900848388672 1.7935099601745605 32.76319885253906
22.527000427246094 2.0316998958587646 32.64830017089844
21.79545783996582 1.6524637937545776 33.62297058105469
21.430490493774414 1.573551058769226 33.421531677246094
21.364160537719727 1.582502841949463 33.80810546875
21.246959686279297 1.5316063165664673 34.2005615234375
21.123342514038086 1.4770534038543701 34.52937698364258
20.805814743041992 1.4670705795288086 34.25288391113281
20.45581817626953 1.4308462142944336 34.31808853149414
20.600269317626953 1.4674406051635742 33.916717529296875
20.754369735717773 1.3736436367034912 35.1762809753418
20.539493560791016 1.371940016746521 34.92202377319336
20.899410247802734 1.4211816787719727 34.84150695800781
20.17527198791504 1.339991569519043 35.082340240478516
20.330089569091797 1.3828932046890259 34.66637420654297
20.387004852294922 1.327282428741455 35.33927536010742
20.01811408996582 1.317226529121399 35.51418685913086
20.60201072692871 1.3407061100006104 35.57168960571289
20.796972274780273 1.3512283563613892 35.858848571777344
20.321657180786133 1.3108903169631958 35.83961868286133
19.852880477905273 1.2634941339492798 36.47167205810547
20.312421798706055 1.29047429561615 36.544620513916016
20.15278434753418 1.2682467699050903 36.828147888183594
19.886077880859375 1.243478775024414 37.17588424682617
20.369056701660156 1.27290678024292 37.15946960449219
19.42281150817871 1.2306500673294067 37.14577865600586
19.737957000732422 1.2231587171554565 37.50296401977539
19.421897888183594 1.2928589582443237 36.12668991088867
19.749622344970703 1.2823641300201416 36.1287841796875
19.397550582885742 1.2819030284881592 36.442569732666016
20.80592155456543 1.331258773803711 36.55744171142578
20.6127986907959 1.3028950691223145 36.849700927734375
20.816545486450195 1.3083549737930298 37.1275749206543
21.07822036743164 1.3680623769760132 36.19645309448242
21.29808807373047 1.3798373937606812 36.660621643066406
21.507478713989258 1.3984287977218628 37.089073181152344
21.156885147094727 1.3527553081512451 37.0977668762207
19.95247459411621 1.2967649698257446 35.86656951904297
20.145347595214844 1.2872713804244995 36.233707427978516
21.511274337768555 1.4258012771606445 36.205570220947266
21.281755447387695 1.4061148166656494 35.82194519042969
21.595993041992188 1.4491597414016724 35.91531753540039
21.661556243896484 1.469269871711731 35.62742233276367
21.983762741088867 1.5143489837646484 35.85758590698242
21.42720603942871 1.4449937343597412 35.388729095458984
21.89832878112793 1.5189257860183716 35.290592193603516
20.973905563354492 1.3870360851287842 35.44757080078125
21.81429100036621 1.5539302825927734 34.71459197998047
21.34311866760254 1.4783521890640259 34.778987884521484
21.574506759643555 1.5496829748153687 34.45802688598633
22.150419235229492 1.6237956285476685 34.66222381591797
22.044506072998047 1.5661548376083374 34.971229553222656
22.261791229248047 1.6851609945297241 34.33201217651367
22.478586196899414 1.6935498714447021 34.59973907470703
22.053951263427734 1.689477562904358 33.976436614990234
21.679901123046875 1.6120645999908447 34.112457275390625
20.955984115600586 1.5089688301086426 33.850486755371094
20.75714683532715 1.4672491550445557 33.50691604614258
21.638044357299805 1.600473403930664 33.18061065673828
21.229063034057617 1.5210450887680054 33.14760208129883
20.887460708618164 1.4734745025634766 33.17774200439453
21.002700805664062 1.4789601564407349 32.886051177978516
18.528499603271484 21.71030044555664 46.903499603271484
18.498048782348633 21.771297454833984 46.585350036621094
18.228652954101562 21.867847442626953 46.60063552856445
18.448579788208008 22.178579330444336 45.59342956542969
18.723649978637695 22.08209991455078 45.461997985839844
18.967100143432617 22.316699981689453 44.58000183105469
19.189998626708984 22.773500442504883 43.11180114746094
18.95372772216797 22.956863403320312 42.86023712158203
18.617345809936523 23.045591354370117 42.989166259765625
17.972036361694336 23.22014617919922 42.468570709228516
18.549224853515625 23.21938133239746 42.28955841064453
18.711681365966797 23.27371597290039 41.918609619140625
18.833351135253906 23.325759887695312 41.532997131347656
18.635618209838867 23.441043853759766 41.223148345947266
18.83693504333496 23.47093391418457 40.849666595458984
16.684003829956055 23.262691497802734 39.90657043457031
16.92965316772461 23.29360580444336 40.22691345214844
16.241395950317383 23.20952606201172 38.852169036865234
15.988462448120117 23.157155990600586 38.535667419433594
15.0480318069458 22.913021087646484 39.047035217285156
13.522317886352539 22.515804290771484 39.81476593017578
12.340667724609375 22.57115936279297 40.245155334472656
12.870661735534668 22.426895141601562 40.238224029541016
11.03115177154541 23.048826217651367 39.311431884765625
10.769569396972656 23.130216598510742 39.12525939941406
11.063379287719727 23.060888290405273 38.983314514160156
10.474748611450195 23.192813873291016 39.267208099365234
10.507262229919434 23.204925537109375 38.93696594238281
11.096014976501465 23.072885513305664 38.65453338623047
10.834973335266113 23.154216766357422 38.467018127441406
11.128758430480957 23.084800720214844 38.32664108276367
11.164111137390137 23.105222702026367 38.0015983581543
11.424107551574707 23.02364158630371 38.195472717285156
10.90088176727295 23.16836929321289 37.80821228027344
11.19662857055664 23.10747718811035 37.67323303222656
11.229477882385254 23.109689712524414 37.34385681152344
11.492762565612793 23.046497344970703 37.538360595703125
11.78870677947998 22.985578536987305 37.40452575683594
11.756559371948242 22.9832820892334 37.73147964477539
11.720320701599121 22.962617874145508 38.06072235107422
12.017749786376953 22.90185546875 37.920475006103516
12.316925048828125 22.847667694091797 37.785762786865234
12.281140327453613 22.82705307006836 38.112144470214844
12.615141868591309 22.784282684326172 37.6530876159668
12.350701332092285 22.858966827392578 37.46506881713867
12.384258270263672 22.8716983795166 37.14237976074219
12.086730003356934 22.93501091003418 37.27396011352539
11.82240104675293 22.998374938964844 37.07988357543945
10.573482513427734 23.228775024414062 38.27708053588867
10.54004192352295 23.216930389404297 38.60752868652344
13.094183921813965 22.6080265045166 38.50201416015625
14.290740966796875 22.671295166015625 38.31116485595703
11.55908489227295 23.061599731445312 36.88505554199219
11.262105941772461 23.1119327545166 37.015174865722656
11.296502113342285 23.12468147277832 36.6884880065918
11.329366683959961 23.1207218170166 36.35788345336914
10.875768661499023 23.19121551513672 35.273502349853516
10.581683158874512 23.241024017333984 35.39849853515625
10.288039207458496 23.290807723999023 35.524635314941406
10.323882102966309 23.27349090576172 35.1808967590332
10.252970695495605 23.307933807373047 35.8664436340332
9.9947509765625 23.34052848815918 35.65068435668945
11.183626174926758 23.151952743530273 35.14775466918945
10.91439151763916 23.18563461303711 34.93470001220703
10.955205917358398 23.179800033569336 34.595951080322266
10.65535831451416 23.21824836730957 34.71712875366211
10.359960556030273 23.256175994873047 34.83795166015625
10.398937225341797 23.2504825592041 34.496665954589844
10.218101501464844 23.312376022338867 36.203060150146484
10.605548858642578 23.225664138793945 37.94363784790039
6.816980838775635 23.51262855529785 42.38691711425781
7.318049430847168 23.212522506713867 43.480430603027344
6.522414207458496 23.521570205688477 42.52712631225586
6.2490715980529785 23.591217041015625 42.33015441894531
6.2261152267456055 23.530733108520508 42.6674690246582
5.90626335144043 23.540544509887695 42.8153076171875
6.178040027618408 23.47102928161621 43.01662826538086
5.941784858703613 22.68418312072754 45.990116119384766
5.0670671463012695 22.72869300842285 46.033695220947266
5.329143047332764 22.62105941772461 46.30414962768555
5.386033058166504 22.762144088745117 45.87645721435547
5.06226110458374 22.872802734375 45.590911865234375
5.263993740081787 23.003175735473633 45.13560104370117
5.50717830657959 22.87009048461914 45.53097915649414
5.791056156158447 23.07688331604004 44.74568176269531
5.982430458068848 22.991121292114258 44.98439407348633
4.779116630554199 23.635412216186523 42.80991744995117
4.382141590118408 24.241756439208984 38.309940338134766
7.014064788818359 23.89615249633789 37.068511962890625
7.298444747924805 23.854108810424805 37.277950286865234
7.323444843292236 23.860774993896484 36.901493072509766
7.637886047363281 23.81214714050293 36.74839782714844
7.359414100646973 23.853546142578125 36.52983856201172
7.902026176452637 23.77138900756836 36.964012145996094
7.942635536193848 23.76349449157715 36.59996032714844
7.565672874450684 23.815406799316406 37.471221923828125
7.266781330108643 23.84946060180664 37.63663101196289
7.828364372253418 23.77497673034668 37.668487548828125
7.864650726318359 23.778823852539062 37.3173713684082
7.231717586517334 23.845430374145508 37.98832702636719
7.494796276092529 23.807464599609375 38.173641204833984
7.195962429046631 23.841567993164062 38.33669662475586
7.158300876617432 23.826011657714844 38.67777633666992
6.891870498657227 23.8643798828125 38.49388885498047
7.4221367835998535 23.79323959350586 38.862030029296875
7.121332168579102 23.815706253051758 39.01738739013672
7.72152042388916 23.764080047607422 38.710968017578125
7.684652805328369 23.753746032714844 39.051002502441406
7.7571234703063965 23.767152786254883 38.36805725097656
8.019436836242676 23.72756004333496 38.56050109863281
7.792715072631836 23.771045684814453 38.019229888916016
6.336965560913086 23.968690872192383 37.75709533691406
5.923989772796631 23.92612648010254 39.28094482421875
5.872400760650635 23.97268295288086 38.89052200317383
7.28053092956543 23.738597869873047 40.21531295776367
8.771753311157227 23.575334548950195 39.47327423095703
8.944246292114258 23.593904495239258 37.77492141723633
8.243022918701172 23.71550750732422 36.45260238647461
6.931000709533691 23.904251098632812 35.35028839111328
8.90944766998291 23.576337814331055 35.4644775390625
7.621186256408691 23.7567195892334 33.930416107177734
7.009098052978516 23.886022567749023 34.96974563598633
5.7982683181762695 24.093828201293945 36.735408782958984
4.49505615234375 24.291189193725586 37.04058074951172
4.130959510803223 24.324878692626953 37.257530212402344
3.6932880878448486 24.343393325805664 37.914791107177734
3.777494192123413 24.347919464111328 37.47993850708008
2.130166530609131 24.4111385345459 38.272804260253906
2.43786358833313 24.410419464111328 38.04192352294922
0.12621352076530457 24.53312873840332 38.293601989746094
0.7579907178878784 24.642831802368164 36.79994583129883
0.8838939666748047 24.688091278076172 36.34124755859375
0.4062615931034088 24.755216598510742 36.44291687011719
0.5393261313438416 24.800411224365234 35.9676513671875
0.9554592967033386 24.7363224029541 35.87302780151367
0.012814491987228394 24.67673110961914 37.40926742553711
-1.22285795211792 24.7860050201416 37.74296188354492
-1.5770931243896484 24.76161766052246 38.0856819152832
-3.726315498352051 24.98401641845703 37.29486083984375
-3.488145351409912 24.95135498046875 37.51826477050781
-2.467003107070923 24.99910545349121 36.929161071777344
-1.9623557329177856 25.002092361450195 36.62895584106445
0.03147165849804878 24.77109718322754 36.73938751220703
0.12447398900985718 24.864818572998047 36.029273986816406
-1.8378796577453613 25.049850463867188 34.413333892822266
-0.7657865881919861 25.087871551513672 32.8128662109375
-0.36265090107917786 25.107532501220703 32.11506652832031
-0.5510786771774292 25.148149490356445 31.751651763916016
-0.23317672312259674 25.116174697875977 31.665403366088867
-0.7803052067756653 25.186445236206055 31.522802352905273
-1.9129635095596313 25.493106842041016 30.399269104003906
-2.1407744884490967 25.539499282836914 30.170269012451172
-2.368705987930298 25.5859432220459 29.940902709960938
-2.0545127391815186 25.554956436157227 29.856861114501953
-2.682821750640869 25.616893768310547 30.025245666503906
-2.596383571624756 25.632375717163086 29.71114730834961
-3.9726943969726562 25.55785369873047 31.53447723388672
-5.523218631744385 25.665666580200195 30.770395278930664
-5.752941608428955 25.68079948425293 30.53507423400879
-5.839078903198242 25.666553497314453 30.85218620300293
-4.260385513305664 25.66211700439453 30.441247940063477
-5.7424774169921875 25.67020034790039 27.279863357543945
-5.514225959777832 25.670400619506836 27.518436431884766
-5.619248390197754 25.67630386352539 25.766523361206055
-5.530831813812256 25.6789493560791 25.44794464111328
-5.847818374633789 25.677352905273438 25.52605628967285
-4.707120895385742 25.675600051879883 26.723758697509766
-0.29500043392181396 25.189456939697266 30.800064086914062
0.07652537524700165 25.146284103393555 30.438125610351562
0.8980362415313721 25.020061492919922 30.737916946411133
0.2286188304424286 25.0706844329834 31.591983795166016
0.21545475721359253 25.04682731628418 32.136085510253906
-0.08792465925216675 25.070659637451172 32.22104263305664
0.6501384973526001 25.026538848876953 31.680133819580078
